# .PCD v0.7 - Point Cloud Data file format
VERSION 0.7
FIELDS x y z rgb
SIZE 4 4 4 4
TYPE F F F F
COUNT 1 1 1 1
WIDTH 1242
HEIGHT 1
VIEWPOINT 0 0 0 1 0 0 0
POINTS 1242
DATA ascii
-8.5029 -7.4763 7.2732 2.047931564e-38
-33.017 -12.69 14.04 1.065291755e-38
-9.8215 -4.6072 10.38 2.047931564e-38
-57.633 -1.9016 -4.9647 2.047931564e-38
-58.621 5.2727 -10.956 2.047931564e-38
-42.472 -11.105 11.662 2.047931564e-38
-8.7149 -10.076 5.4403 2.047931564e-38
-28.51 30.04 4.5971 2.047931564e-38
-11.946 16.294 10.827 2.047931564e-38
-34.809 32.399 -2.8869 2.047931564e-38
-44.348 29.404 -12.34 2.047931564e-38
-50.927 -10.113 4.1361 2.047931564e-38
-10.451 -3.1551 11.598 2.047931564e-38
-55.215 16.405 -16.374 2.047931564e-38
-39.186 -11.367 13.235 2.047931564e-38
-51.472 -9.8668 3.5373 2.047931564e-38
-21.264 26.855 7.5022 2.047931564e-38
-57.915 10.003 -13.364 2.047931564e-38
-43.288 30.156 -10.985 2.047931564e-38
-10.224 1.2426 12.518 1.065291755e-38
-23.512 -16.434 10.375 2.047931564e-38
-19.231 25.504 8.1594 2.047931564e-38
-10.146 7.1787 12.517 2.047931564e-38
-57.958 -1.1364 -5.5608 2.047931564e-38
-56.319 14.546 -15.238 2.047931564e-38
-48.274 -10.366 7.5013 1.065291755e-38
-40.845 31.409 -9.074 2.047931564e-38
-48.932 -10.317 6.806 1.065291755e-38
-27.7 29.695 5.3045 2.047931564e-38
-24.644 -16.115 11.057 2.047931564e-38
-22.296 -16.895 9.5503 2.047931564e-38
-47.815 -10.344 8.0734 1.065291755e-38
-24.189 28.379 6.6618 2.047931564e-38
-21.599 -17.099 9.0723 2.047931564e-38
-24.112 -16.376 10.708 2.047931564e-38
-43.864 29.888 -11.615 2.047931564e-38
-53.129 19.67 -17.723 2.047931564e-38
-19.604 -17.763 7.2887 2.047931564e-38
-10.728 -2.4175 12.259 2.047931564e-38
-8.441 -8.5052 6.726 2.047931564e-38
-11.719 15.299 11.407 2.047931564e-38
-48.116 25.082 -18.871 2.047931564e-38
-25.654 -15.832 11.646 2.047931564e-38
-11.977 16.069 11.214 2.047931564e-38
-22.872 27.855 7.0742 2.047931564e-38
-14.326 20.653 9.9309 2.047931564e-38
-51.675 21.618 -18.138 2.047931564e-38
-31.673 31.815 1.0339 2.047931564e-38
-34.343 32.42 -1.8334 2.047931564e-38
-46.519 27.185 -17.013 2.047931564e-38
-36.341 32.694 -5.0099 2.047931564e-38
-18.097 -18.099 5.9915 2.047931564e-38
-12.75 18.332 10.509 2.047931564e-38
-9.0218 -5.664 9.4086 2.047931564e-38
-28.599 -14.6 13.139 1.065291755e-38
-50.98 22.47 -18.316 2.047931564e-38
-45.04 -10.706 10.519 2.047931564e-38
-53.926 18.81 -17.36 2.047931564e-38
-57.837 11.114 -13.741 2.047931564e-38
-10.492 -1.2882 12.528 2.047931564e-38
-37.617 -11.584 13.999 2.047931564e-38
-17.5 24.291 8.8422 2.047931564e-38
-9.9562 2.3187 12.72 1.065291755e-38
-45.181 28.902 -14.36 2.047931564e-38
-24.862 -15.853 11.642 2.047931564e-38
-10.37 -3.8326 11.655 2.047931564e-38
-47.341 -10.622 8.6367 1.065291755e-38
-10.224 8.8088 12.628 2.047931564e-38
-37.173 32.706 -6.0486 2.047931564e-38
-33.043 32.305 -0.43684 2.047931564e-38
-57.651 -2.678 -4.2319 2.047931564e-38
-13.927 19.954 10.38 2.047931564e-38
-56.633 -4.8331 -2.4474 2.047931564e-38
-33.983 -12.345 14.529 2.047931564e-38
-53.441 -8.8866 1.6359 2.047931564e-38
-14.205 -17.027 4.3187 2.047931564e-38
-11.963 16.637 11.115 2.047931564e-38
-9.9765 5.5042 12.893 2.047931564e-38
-10.182 1.7398 12.957 1.065291755e-38
-12.451 17.843 10.785 2.047931564e-38
-13.201 19.272 10.422 2.047931564e-38
-45.571 28.6 -15.138 2.047931564e-38
-15.805 -17.899 4.7181 2.047931564e-38
-16.776 -18.143 5.2256 2.047931564e-38
-26.814 29.393 6.2772 2.047931564e-38
-58.93 1.7483 -8.1029 2.047931564e-38
-31.961 -13.129 14.385 1.065291755e-38
-56.44 15.164 -15.309 2.047931564e-38
-56.177 15.607 -15.677 2.047931564e-38
-52.426 -9.6324 2.9917 2.047931564e-38
-50.829 -10.119 5.1132 1.065291755e-38
-49.846 23.877 -18.634 2.047931564e-38
-10.058 7.8132 12.833 2.047931564e-38
-20.325 -17.592 8.4073 2.047931564e-38
-10.474 -0.46028 12.958 2.047931564e-38
-10.045 -4.3588 11.362 2.047931564e-38
-38.835 -11.627 13.74 2.047931564e-38
-26.524 -15.35 12.605 2.047931564e-38
-46.907 -10.608 9.3179 1.065291755e-38
-57.744 12.158 -13.956 2.047931564e-38
-58.758 8.1284 -12.407 2.047931564e-38
-49.129 24.743 -18.496 2.047931564e-38
-27.34 -15.131 12.926 2.047931564e-38
-12.191 17.163 11.18 2.047931564e-38
-8.6099 -6.6257 8.81 2.047931564e-38
-10.236 1.1611 13.115 1.065291755e-38
-47.573 26.615 -17.342 2.047931564e-38
-29.786 -13.865 14.085 1.065291755e-38
-56.974 14.327 -14.742 2.047931564e-38
-9.93 3.4222 13.078 1.065291755e-38
-16.54 23.379 9.5395 2.047931564e-38
-59.186 4.4538 -10.081 2.047931564e-38
-12.685 -16.026 4.4909 2.047931564e-38
-25.784 -15.595 12.391 2.047931564e-38
-45.998 28.355 -15.685 2.047931564e-38
-46.031 -10.646 10.199 2.047931564e-38
-22.575 -16.854 10.372 2.047931564e-38
-41.285 -11.385 12.902 2.047931564e-38
-42.965 30.931 -10.421 2.047931564e-38
-40.51 -11.328 13.34 2.047931564e-38
-37.025 -11.861 14.389 2.047931564e-38
-46.542 27.911 -16.038 2.047931564e-38
-10.813 12.249 12.535 2.047931564e-38
-9.9866 6.7784 13.099 2.047931564e-38
-18.536 -18.118 6.9494 2.047931564e-38
-25.256 -15.844 12.14 2.047931564e-38
-38.061 32.827 -6.6455 2.047931564e-38
-25.473 29.071 6.8944 2.047931564e-38
-33.906 32.657 -0.92598 2.047931564e-38
-59.173 6.3854 -11.176 2.047931564e-38
-17.256 -18.294 5.8268 2.047931564e-38
-23.788 -16.347 11.36 2.047931564e-38
-19.815 26.142 8.6648 2.047931564e-38
-32.618 32.379 0.52255 2.047931564e-38
-38.352 -11.592 14.199 2.047931564e-38
-35.771 -11.847 14.861 2.047931564e-38
-9.6513 -13.141 4.6931 2.047931564e-38
-50.416 -10.136 6.1319 1.065291755e-38
-49.032 -10.476 7.5505 1.065291755e-38
-15.013 -17.833 4.5821 2.047931564e-38
-10.22 0.40417 13.201 1.065291755e-38
-11.212 14.192 12.212 2.047931564e-38
-29.31 30.645 4.8961 2.047931564e-38
-45.299 29.487 -13.185 2.047931564e-38
-59.114 7.3961 -11.785 2.047931564e-38
-9.7284 4.6673 13.167 1.065291755e-38
-55.911 16.781 -15.953 2.047931564e-38
-31.342 31.918 2.1972 2.047931564e-38
-55.402 -7.1788 -0.01634 2.047931564e-38
-10.596 -3.5124 12.551 2.047931564e-38
-29.789 31.118 4.0962 2.047931564e-38
-48.503 26.001 -17.702 2.047931564e-38
-47.07 27.663 -16.26 2.047931564e-38
-56.28 -6.0731 -1.164 2.047931564e-38
-11.441 14.993 12.129 2.047931564e-38
-10.467 10.994 12.886 2.047931564e-38
-48.551 -10.616 8.1326 1.065291755e-38
-43.99 30.566 -11.045 2.047931564e-38
-24.838 -15.851 12.269 2.047931564e-38
-57.499 13.715 -14.476 2.047931564e-38
-39.49 -11.61 13.871 2.047931564e-38
-14.93 21.433 10.606 2.047931564e-38
-10.587 -14.384 4.6448 2.047931564e-38
-51.817 -10.118 4.3468 2.047931564e-38
-46.295 28.618 -15.006 2.047931564e-38
-9.6923 6.1122 13.19 2.047931564e-38
-49.737 -10.348 7.0866 1.065291755e-38
-21.912 27.629 8.0724 2.047931564e-38
-10.94 -2.2243 13.363 2.047931564e-38
-48.087 -10.605 8.7231 1.065291755e-38
-54.616 -8.1151 1.1844 2.047931564e-38
-8.2221 -10.012 6.4278 2.047931564e-38
-8.2627 -10.67 5.8717 2.047931564e-38
-36.059 33.155 -3.5712 2.047931564e-38
-12.418 17.925 11.415 2.047931564e-38
-21.906 -17.123 10.293 2.047931564e-38
-47.515 27.363 -16.655 2.047931564e-38
-9.2992 -5.4112 10.775 2.047931564e-38
-28.118 30.032 6.2982 2.047931564e-38
-59.5 2.9042 -8.7272 2.047931564e-38
-18.688 25.217 9.5025 2.047931564e-38
-46.668 28.35 -15.521 2.047931564e-38
-33.016 -12.646 15.17 1.065291755e-38
-59.013 9.0662 -12.732 2.047931564e-38
-42.201 31.686 -9.6728 2.047931564e-38
-50.561 24.225 -17.756 2.047931564e-38
-13.222 -16.898 4.5993 2.047931564e-38
-10.706 -1.1912 13.585 2.047931564e-38
-37.729 -11.602 14.752 2.047931564e-38
-10.914 13.243 12.712 2.047931564e-38
-43.785 -11.094 12.108 2.047931564e-38
-42.433 -11.362 12.764 2.047931564e-38
-8.5108 -11.449 5.5992 2.047931564e-38
-30.927 -13.365 14.934 1.065291755e-38
-44.604 30.389 -11.573 2.047931564e-38
-46.949 28.126 -15.86 2.047931564e-38
-59.163 0.181 -6.4134 2.047931564e-38
-57.633 -4.0857 -2.8016 2.047931564e-38
-20.652 26.832 8.7648 2.047931564e-38
-56.902 -5.4415 -1.6718 2.047931564e-38
-55.717 17.568 -16.335 2.047931564e-38
-47.683 -10.723 9.284 1.065291755e-38
-9.968 1.4952 13.538 1.065291755e-38
-51.388 23.38 -17.82 2.047931564e-38
-39.594 32.753 -7.2365 2.047931564e-38
-30.686 31.742 3.3396 2.047931564e-38
-11.458 -15.448 4.7456 2.047931564e-38
-47.378 27.898 -15.772 2.047931564e-38
-58.914 10.074 -13.027 2.047931564e-38
-10.42 -4.3135 12.485 2.047931564e-38
-58.908 -0.92636 -5.2455 2.047931564e-38
-16.1 -18.408 5.4561 2.047931564e-38
-53.123 21.348 -17.617 2.047931564e-38
-22.808 -16.652 11.352 2.047931564e-38
-54.071 20.179 -17.197 2.047931564e-38
-27.679 -14.869 13.886 2.047931564e-38
-49.843 25.167 -17.725 2.047931564e-38
-15.6 22.423 10.591 2.047931564e-38
-11.491 15.875 12.124 2.047931564e-38
-13.545 19.864 11.215 2.047931564e-38
-24.517 -16.142 12.325 2.047931564e-38
-56.837 15.897 -15.253 2.047931564e-38
-59.727 3.8778 -9.2661 2.047931564e-38
-17.327 -18.377 6.6034 2.047931564e-38
-39.036 -11.634 14.437 2.047931564e-38
-20.587 -17.619 9.5241 2.047931564e-38
-9.6912 6.5624 13.522 2.047931564e-38
-43.64 31.149 -10.597 2.047931564e-38
-9.7003 5.4676 13.61 2.047931564e-38
-58.188 -3.0777 -3.4001 2.047931564e-38
-53.506 -9.3421 2.8719 2.047931564e-38
-17.183 24.257 9.9671 2.047931564e-38
-25.999 -15.609 13.162 2.047931564e-38
-7.9591 -8.0529 8.1297 2.047931564e-38
-35.004 33.123 -1.4578 2.047931564e-38
-24.798 -15.897 12.702 2.047931564e-38
-34.964 -11.98 15.527 2.047931564e-38
-46.061 29.423 -13.75 2.047931564e-38
-9.7024 7.2507 13.511 2.047931564e-38
-59.528 1.0483 -7.2471 2.047931564e-38
-48.478 26.836 -16.936 2.047931564e-38
-36.853 33.393 -4.313 2.047931564e-38
-33.364 -12.352 15.62 2.047931564e-38
-47.049 -10.842 10.078 1.065291755e-38
-18.915 -18.108 8.1765 2.047931564e-38
-9.9592 9.4336 13.403 2.047931564e-38
-25.284 -15.867 12.91 2.047931564e-38
-11.711 16.726 12.023 2.047931564e-38
-14.23 20.648 11.327 2.047931564e-38
-58.86 11.043 -13.437 2.047931564e-38
-35.765 33.313 -2.3955 2.047931564e-38
-36.705 -11.59 15.433 2.047931564e-38
-55.15 18.972 -16.724 2.047931564e-38
-10.95 -3.3007 13.566 2.047931564e-38
-8.5037 -6.4175 9.9566 2.047931564e-38
-47.263 28.362 -15.397 2.047931564e-38
-26.593 -15.352 13.632 2.047931564e-38
-49.24 -10.621 8.1938 1.065291755e-38
-15.272 -18.376 5.2009 2.047931564e-38
-19.837 26.131 9.6662 2.047931564e-38
-37.576 33.499 -5.4424 2.047931564e-38
-58.305 13.102 -13.971 2.047931564e-38
-8.7465 -12.616 5.3239 2.047931564e-38
-45.216 -11.075 11.594 2.047931564e-38
-23.203 -16.518 11.949 2.047931564e-38
-59.879 6.038 -10.403 2.047931564e-38
-52.692 -9.8846 4.2076 2.047931564e-38
-34.002 -12.391 15.664 2.047931564e-38
-9.7256 2.5875 13.866 1.065291755e-38
-21.234 -17.357 10.435 2.047931564e-38
-51.905 -10.096 5.3364 1.065291755e-38
-24.066 28.852 8.0703 2.047931564e-38
-10.463 -0.28021 14.117 2.047931564e-38
-22.125 -17.122 11.072 2.047931564e-38
-56.743 16.617 -15.666 2.047931564e-38
-57.82 14.574 -14.492 2.047931564e-38
-10.716 -4.199 13.244 2.047931564e-38
-38.526 -11.628 14.994 2.047931564e-38
-29.629 30.885 5.8625 2.047931564e-38
-21.533 -17.122 10.915 2.047931564e-38
-40.645 32.816 -7.7644 2.047931564e-38
-9.6689 6.1707 13.921 2.047931564e-38
-22.747 28.339 8.4518 2.047931564e-38
-32.073 -12.844 15.763 1.065291755e-38
-9.7288 8.3954 13.719 2.047931564e-38
-52.639 22.718 -17.448 2.047931564e-38
-10.232 0.73566 14.206 1.065291755e-38
-57.519 15.396 -14.764 2.047931564e-38
-55.778 18.494 -16.221 2.047931564e-38
-22.119 -16.855 11.462 2.047931564e-38
-47.151 28.787 -14.936 2.047931564e-38
-52.372 -10.13 4.7971 1.065291755e-38
-41.654 -11.621 13.678 2.047931564e-38
-28.429 -14.473 14.757 1.065291755e-38
-18.023 -18.369 7.7819 2.047931564e-38
-30.338 31.391 5.0877 2.047931564e-38
-46.81 -10.876 10.722 1.065291755e-38
-45.91 30.038 -13.041 2.047931564e-38
-48.221 27.773 -15.983 2.047931564e-38
-59.97 7.1172 -10.963 2.047931564e-38
-19.637 -18.093 9.1313 2.047931564e-38
-29.106 30.431 6.8341 2.047931564e-38
-48.84 -10.867 8.8416 1.065291755e-38
-32.685 32.872 1.5958 2.047931564e-38
-44.357 31.216 -10.718 2.047931564e-38
-46.879 29.235 -14.198 2.047931564e-38
-50.562 -10.565 7.113 1.065291755e-38
-47.737 -10.867 9.968 1.065291755e-38
-9.5399 4.5678 14.057 1.065291755e-38
-49.822 -10.799 7.8648 1.065291755e-38
-51.42 -10.382 6.2066 1.065291755e-38
-43.436 31.791 -10.174 2.047931564e-38
-10.456 12.536 13.441 2.047931564e-38
-22.557 -16.838 11.838 2.047931564e-38
-9.5382 -5.4332 11.989 2.047931564e-38
-26.91 29.884 7.6406 2.047931564e-38
-49.554 26.542 -16.73 2.047931564e-38
-11.1 15.408 12.764 2.047931564e-38
-54.789 -8.666 2.2355 2.047931564e-38
-21.738 -17.105 11.338 2.047931564e-38
-60.119 2.0604 -7.7329 2.047931564e-38
-41.803 32.619 -8.8016 2.047931564e-38
-48.307 -10.872 9.5673 1.065291755e-38
-45.684 30.436 -12.342 2.047931564e-38
-21.655 27.711 9.2002 2.047931564e-38
-24.591 -16.115 13.139 2.047931564e-38
-34.79 33.436 -0.5361 2.047931564e-38
-13.432 -17.857 4.9124 2.047931564e-38
-60.286 4.8478 -9.458 2.047931564e-38
-16.465 23.546 11.025 2.047931564e-38
-47.901 28.446 -15.231 2.047931564e-38
-40.442 -11.589 14.576 2.047931564e-38
-33.431 33.195 0.92035 2.047931564e-38
-16.311 -18.69 6.468 2.047931564e-38
-9.5179 6.7642 14.103 2.047931564e-38
-10.211 -4.9786 12.922 2.047931564e-38
-59.164 -1.9457 -4.0003 2.047931564e-38
-25.719 29.549 8.0992 2.047931564e-38
-23.338 -16.39 12.654 2.047931564e-38
-34.115 33.387 0.13698 2.047931564e-38
-20.578 26.878 9.826 2.047931564e-38
-33.063 -12.628 16.112 2.047931564e-38
-33.645 -12.358 16.205 2.047931564e-38
-59.733 -0.31568 -5.6229 2.047931564e-38
-60.236 6.7563 -10.288 2.047931564e-38
-7.9429 -7.2495 9.5966 2.047931564e-38
-51.526 24.606 -17.144 2.047931564e-38
-55.073 20.075 -16.738 2.047931564e-38
-37.859 -11.622 15.67 2.047931564e-38
-12.705 18.89 12.222 2.047931564e-38
-17.86 24.889 10.681 2.047931564e-38
-19.135 25.656 10.578 2.047931564e-38
-39.322 -11.6 15.164 2.047931564e-38
-20.486 -17.678 10.429 2.047931564e-38
-21.008 -17.382 10.978 2.047931564e-38
-14.967 21.759 11.755 2.047931564e-38
-47.477 -10.887 10.557 1.065291755e-38
-59.053 12.332 -13.741 2.047931564e-38
-43.592 -11.526 13.046 2.047931564e-38
-60.066 8.4147 -11.673 2.047931564e-38
-35.766 -11.845 16.2 2.047931564e-38
-57.861 -5.1044 -1.566 2.047931564e-38
-9.4934 7.4008 14.15 2.047931564e-38
-31.649 32.449 3.5397 2.047931564e-38
-39.268 33.643 -6.5376 2.047931564e-38
-29.713 -13.701 15.762 1.065291755e-38
-55.786 -7.8898 1.3192 2.047931564e-38
-30.988 -13.171 16.097 1.065291755e-38
-28.397 30.158 7.7798 2.047931564e-38
-44.051 31.727 -10.421 2.047931564e-38
-46.516 -11.108 11.299 1.065291755e-38
-21.99 -16.919 11.912 2.047931564e-38
-9.914 10.573 13.937 2.047931564e-38
-10.7 -1.4874 14.661 2.047931564e-38
-14.433 -18.551 5.3026 2.047931564e-38
-35.71 33.762 -1.5546 2.047931564e-38
-7.5416 -9.5324 7.7694 2.047931564e-38
-9.9848 1.6322 14.683 1.065291755e-38
-8.2046 -12.434 5.9263 2.047931564e-38
-7.93 -11.588 6.4441 2.047931564e-38
-44.688 -11.356 12.576 2.047931564e-38
-13.47 19.93 12.258 2.047931564e-38
-11.542 -16.579 5.0688 2.047931564e-38
-42.933 32.4 -9.5015 2.047931564e-38
-31.072 32.121 4.5533 2.047931564e-38
-38.7 -11.362 15.743 2.047931564e-38
-60.496 6.0849 -9.7564 2.047931564e-38
-50.875 25.771 -16.695 2.047931564e-38
-40.068 -11.352 15.231 2.047931564e-38
-8.9586 -13.798 5.5496 2.047931564e-38
-25.469 -15.802 13.993 2.047931564e-38
-10.974 -4.1902 14.205 2.047931564e-38
-49.233 27.632 -15.705 2.047931564e-38
-21.35 -17.344 11.456 2.047931564e-38
-56.827 -6.8563 0.26426 2.047931564e-38
-10.482 14.172 13.336 2.047931564e-38
-8.5034 -6.5591 11.013 2.047931564e-38
-36.687 33.989 -2.8261 2.047931564e-38
-10.993 -2.7978 14.739 2.047931564e-38
-32.404 32.958 2.7415 2.047931564e-38
-15.247 -18.855 5.9411 2.047931564e-38
-46.697 30.092 -13.42 2.047931564e-38
-59.884 10.403 -12.777 2.047931564e-38
-11.718 17.332 12.833 2.047931564e-38
-34.3 -12.089 16.665 2.047931564e-38
-44.962 31.452 -11.158 2.047931564e-38
-58.777 14.088 -14.066 2.047931564e-38
-15.75 22.788 11.824 2.047931564e-38
-52.73 -10.089 5.5777 1.065291755e-38
-30.3 31.102 6.7933 2.047931564e-38
-14.176 20.773 12.432 2.047931564e-38
-41.566 33.183 -7.9903 2.047931564e-38
-54.775 21.21 -16.769 2.047931564e-38
-60.298 0.44552 -6.2113 2.047931564e-38
-58.728 -3.9071 -2.1292 2.047931564e-38
-48.378 -11.088 10.127 1.065291755e-38
-37.933 34.191 -4.7544 2.047931564e-38
-19.837 -18.126 10.23 2.047931564e-38
-55.983 19.577 -16.316 2.047931564e-38
-9.7205 -15.065 5.4207 2.047931564e-38
-9.4384 3.7328 14.766 1.065291755e-38
-44.645 31.785 -10.716 2.047931564e-38
-57.124 17.721 -15.728 2.047931564e-38
-8.4954 -13.385 5.8901 2.047931564e-38
-46.368 30.613 -12.643 2.047931564e-38
-12.201 -17.557 5.0857 2.047931564e-38
-36.945 -11.559 16.532 2.047931564e-38
-50.679 -10.845 7.9176 1.065291755e-38
-37.429 34.222 -3.8463 2.047931564e-38
-29.829 30.644 7.7588 2.047931564e-38
-22.737 28.52 9.5074 2.047931564e-38
-50.178 27.054 -15.938 2.047931564e-38
-35.576 33.936 -0.7484 2.047931564e-38
-59.757 11.646 -13.26 2.047931564e-38
-10.177 0.005879 15.06 2.047931564e-38
-9.7066 2.6982 15.027 1.065291755e-38
-26.421 -15.379 14.853 2.047931564e-38
-56.632 18.759 -15.947 2.047931564e-38
-22.378 -16.872 12.69 2.047931564e-38
-45.648 31.256 -11.486 2.047931564e-38
-53.372 -10.104 4.8996 1.065291755e-38
-60.865 4.1175 -8.6891 2.047931564e-38
-54.133 22.346 -16.965 2.047931564e-38
-42.613 -11.586 14.228 2.047931564e-38
-57.697 16.935 -15.173 2.047931564e-38
-60.838 3.0024 -8.2252 2.047931564e-38
-48.496 28.905 -14.54 2.047931564e-38
-18.627 -18.347 9.5375 2.047931564e-38
-49.544 -11.13 9.1301 1.065291755e-38
-38.668 34.23 -5.5228 2.047931564e-38
-52.821 24.086 -16.962 2.047931564e-38
-17.248 24.341 11.682 2.047931564e-38
-60.079 -1.0761 -4.6847 2.047931564e-38
-40.426 33.808 -7.014 2.047931564e-38
-9.4803 9.7002 14.404 2.047931564e-38
-31.197 31.683 6.1826 2.047931564e-38
-9.2809 5.2453 14.841 1.065291755e-38
-30.91 -13.095 16.782 1.065291755e-38
-50.178 -11.079 8.5764 1.065291755e-38
-48.045 -11.13 10.742 1.065291755e-38
-48.941 -11.1 9.9067 1.065291755e-38
-32.619 -12.633 16.945 2.047931564e-38
-51.638 -10.621 7.1911 1.065291755e-38
-33.304 -12.415 16.999 2.047931564e-38
-48.001 29.496 -13.986 2.047931564e-38
-54.073 -9.7388 4.2965 1.065291755e-38
-46.049 31.088 -12.13 2.047931564e-38
-9.4365 4.2855 15.031 1.065291755e-38
-47.522 -11.089 11.278 1.065291755e-38
-27.472 30.158 8.678 2.047931564e-38
-21.195 27.509 10.422 2.047931564e-38
-10.163 13.394 13.935 2.047931564e-38
-60.741 1.2329 -6.9744 2.047931564e-38
-43.916 32.445 -9.9737 2.047931564e-38
-31.603 -13.08 16.798 1.065291755e-38
-10.478 -16.179 5.3844 2.047931564e-38
-17.297 -18.82 8.3203 2.047931564e-38
-7.4859 -11.162 7.2756 2.047931564e-38
-52.464 -10.378 6.3578 1.065291755e-38
-57.851 -5.912 -0.26041 2.047931564e-38
-60.889 7.221 -10.168 2.047931564e-38
-29.21 30.483 8.3776 2.047931564e-38
-36.426 34.191 -1.5864 2.047931564e-38
-33.56 33.615 1.882 2.047931564e-38
-45.957 -11.391 12.414 1.065291755e-38
-24.985 29.548 9.1952 2.047931564e-38
-41.737 -11.611 14.903 2.047931564e-38
-52.421 24.939 -16.47 2.047931564e-38
-9.2219 7.0219 14.797 2.047931564e-38
-10.73 -5.2503 14.253 2.047931564e-38
-58.628 15.527 -14.476 2.047931564e-38
-19.132 -18.33 10.135 2.047931564e-38
-50.591 -11.119 8.2903 1.065291755e-38
-28.341 -14.333 16.108 1.065291755e-38
-53.699 23.383 -16.754 2.047931564e-38
-39.825 -11.344 16.008 2.047931564e-38
-11.982 18.273 13.095 2.047931564e-38
-9.8168 11.994 14.289 2.047931564e-38
-7.4649 -8.6602 9.4104 2.047931564e-38
-47.521 30.109 -13.388 2.047931564e-38
-9.2808 7.8697 14.827 2.047931564e-38
-35.321 34.109 -0.11518 2.047931564e-38
-7.9395 -12.591 6.6976 2.047931564e-38
-30.571 30.879 7.9568 2.047931564e-38
-19.979 -17.965 11.067 2.047931564e-38
-27.159 -14.872 15.701 2.047931564e-38
-61.148 5.0721 -8.9764 2.047931564e-38
-23.452 -16.475 13.763 2.047931564e-38
-20.539 -17.664 11.652 2.047931564e-38
-55.83 20.667 -16.19 2.047931564e-38
-11.171 16.739 13.443 2.047931564e-38
-19.517 -18.107 10.727 2.047931564e-38
-8.0879 -13.107 6.3981 2.047931564e-38
-61.055 2.3398 -7.503 2.047931564e-38
-13.047 -18.543 5.3469 2.047931564e-38
-24.354 -16.117 14.319 2.047931564e-38
-20.267 26.841 11.084 2.047931564e-38
-9.3179 -6.3976 12.732 2.047931564e-38
-40.613 -11.331 15.802 2.047931564e-38
-21.36 -17.374 12.346 2.047931564e-38
-34.766 34.096 0.53219 2.047931564e-38
-36.409 -11.614 17.139 2.047931564e-38
-9.2706 8.7198 14.808 2.047931564e-38
-36.023 34.354 -1.056 2.047931564e-38
-9.2042 6.281 15.091 2.047931564e-38
-60.704 9.6158 -12.001 2.047931564e-38
-49.914 28.077 -15.071 2.047931564e-38
-9.9831 0.88131 15.56 1.065291755e-38
-59.7 -2.7702 -2.725 2.047931564e-38
-15.468 -19.132 6.9594 2.047931564e-38
-44.487 -11.701 13.525 2.047931564e-38
-61.213 6.0526 -9.2211 2.047931564e-38
-51.984 25.846 -16.133 2.047931564e-38
-11.464 -3.4438 15.708 2.047931564e-38
-7.3355 -9.6001 8.8499 2.047931564e-38
-33.036 33.629 2.6461 2.047931564e-38
-39.169 -11.347 16.492 2.047931564e-38
-17.742 -18.714 9.2195 2.047931564e-38
-47.185 30.632 -12.847 2.047931564e-38
-18.123 25.184 11.911 2.047931564e-38
-48.751 -11.113 10.602 1.065291755e-38
-23.573 29.105 9.8322 2.047931564e-38
-10.606 15.563 13.78 2.047931564e-38
-10.47 -0.71056 15.734 2.047931564e-38
-35.06 -11.875 17.412 2.047931564e-38
-51.255 26.775 -15.735 2.047931564e-38
-30.332 -13.358 17.06 1.065291755e-38
-9.421 3.8243 15.435 1.065291755e-38
-45.207 32.082 -10.759 2.047931564e-38
-49.998 -11.092 9.4004 1.065291755e-38
-10.172 -6.0769 13.816 2.047931564e-38
-14.673 21.495 13.119 2.047931564e-38
-30.028 30.833 8.4195 2.047931564e-38
-19.122 25.904 11.797 2.047931564e-38
-50.605 -11.094 8.7605 1.065291755e-38
-31.898 32.623 5.2681 2.047931564e-38
-60.773 -0.16819 -5.3188 2.047931564e-38
-42.489 -11.596 14.947 2.047931564e-38
-26.51 30.027 9.4021 2.047931564e-38
-44.685 32.453 -10.3 2.047931564e-38
-61.065 8.7046 -10.738 2.047931564e-38
-15.381 22.439 12.91 2.047931564e-38
-16.934 23.935 12.566 2.047931564e-38
-56.542 -8.0478 2.0377 2.047931564e-38
-11.215 -4.8378 15.211 2.047931564e-38
-31.246 -13.106 17.271 1.065291755e-38
-55.293 -9.1248 3.6057 2.047931564e-38
-32.654 33.464 3.4587 2.047931564e-38
-12.518 19.096 13.4 2.047931564e-38
-35.835 34.408 -0.49107 2.047931564e-38
-49.69 -11.132 9.83 1.065291755e-38
-49.44 28.819 -14.533 2.047931564e-38
-16.209 -19.1 7.9009 2.047931564e-38
-51.059 -11.096 8.3382 1.065291755e-38
-35.716 -11.606 17.561 2.047931564e-38
-31.071 31.407 7.6153 2.047931564e-38
-8.5278 -6.9036 12.094 2.047931564e-38
-22.291 28.417 10.476 2.047931564e-38
-32.196 -12.784 17.458 1.065291755e-38
-14.728 -19.25 6.5168 2.047931564e-38
-8.0381 -7.4157 11.346 2.047931564e-38
-46.805 31.143 -12.297 2.047931564e-38
-43.689 -11.838 14.205 2.047931564e-38
-8.1905 -13.712 6.4386 2.047931564e-38
-32.378 33.169 4.3106 2.047931564e-38
-33.739 -12.319 17.567 2.047931564e-38
-53.534 -10.129 5.8805 1.065291755e-38
-13.634 -19.049 5.8026 2.047931564e-38
-22.776 28.864 10.154 2.047931564e-38
-59.901 13.365 -13.675 2.047931564e-38
-32.853 -12.614 17.525 2.047931564e-38
-28.502 30.388 9.2715 2.047931564e-38
-43.134 33.362 -9.1694 2.047931564e-38
-22.425 -16.867 13.56 2.047931564e-38
-9.5911 2.3623 15.724 1.065291755e-38
-11.124 -2.2071 16.102 2.047931564e-38
-11.457 -17.676 5.509 2.047931564e-38
-8.6935 -14.577 6.1759 2.047931564e-38
-13.135 19.916 13.468 2.047931564e-38
-16.234 23.28 12.921 2.047931564e-38
-38.001 -11.376 17.191 2.047931564e-38
-58.648 16.668 -14.645 2.047931564e-38
-25.33 -15.797 15.249 2.047931564e-38
-48.912 29.544 -13.976 2.047931564e-38
-9.1838 4.4424 15.567 1.065291755e-38
-50.429 -11.345 9.1104 1.065291755e-38
-48.345 30.059 -13.48 2.047931564e-38
-9.724 1.5816 15.854 1.065291755e-38
-47.495 -11.391 11.964 1.065291755e-38
-36.866 -11.36 17.59 2.047931564e-38
-31.154 31.157 8.2944 2.047931564e-38
-29.617 30.624 9.1565 2.047931564e-38
-11.479 17.828 13.658 2.047931564e-38
-30.657 30.89 8.7552 2.047931564e-38
-36.589 34.643 -1.159 2.047931564e-38
-61.386 8.0876 -10.001 2.047931564e-38
-43.125 -11.87 14.719 2.047931564e-38
-7.7271 -13.02 6.8885 2.047931564e-38
-12.112 -18.293 5.606 2.047931564e-38
-57.275 -7.4749 1.5414 2.047931564e-38
-7.4513 -12.152 7.4629 2.047931564e-38
-54.987 22.764 -16.315 2.047931564e-38
-31.565 -12.856 17.706 1.065291755e-38
-7.7304 -12.693 7.2873 2.047931564e-38
-38.333 34.896 -4.104 2.047931564e-38
-9.4409 11.099 14.98 2.047931564e-38
-41.287 34.289 -7.2153 2.047931564e-38
-9.2732 10.438 15.048 2.047931564e-38
-42.103 34.006 -7.7331 2.047931564e-38
-18.554 -18.589 10.517 2.047931564e-38
-60.727 11.492 -12.777 2.047931564e-38
-19.403 -18.313 11.269 2.047931564e-38
-28.94 -13.831 17.223 1.065291755e-38
-53.99 24.26 -16.078 2.047931564e-38
-50.904 27.872 -14.869 2.047931564e-38
-53.102 25.407 -15.803 2.047931564e-38
-49.401 -11.376 10.437 1.065291755e-38
-59.122 -4.8423 -0.73151 2.047931564e-38
-60.995 10.573 -12.335 2.047931564e-38
-58.062 18.179 -15.202 2.047931564e-38
-19.815 26.618 11.957 2.047931564e-38
-39.764 34.792 -5.8765 2.047931564e-38
-45.791 -11.861 13.19 1.065291755e-38
-41.695 -11.362 15.969 2.047931564e-38
-31.719 31.512 7.9658 2.047931564e-38
-10.936 -6.0082 15.007 2.047931564e-38
-36.357 34.692 -0.56091 2.047931564e-38
-7.2067 -9.318 9.7372 2.047931564e-38
-9.6757 -16.141 6.0134 2.047931564e-38
-51.707 -11.099 8.1548 1.065291755e-38
-9.2461 3.3345 15.865 1.065291755e-38
-35.619 34.627 0.257 2.047931564e-38
-17.612 24.629 12.891 2.047931564e-38
-25.477 29.908 10.064 2.047931564e-38
-50.964 -11.358 8.8925 1.065291755e-38
-59.605 15.202 -13.956 2.047931564e-38
-48.007 30.665 -13.023 2.047931564e-38
-10.697 -17.334 5.7376 2.047931564e-38
-33.124 -12.369 18.035 2.047931564e-38
-10.118 0.11835 16.251 2.047931564e-38
-7.5055 -8.1837 10.913 2.047931564e-38
-60.549 12.532 -13.225 2.047931564e-38
-7.199 -10.692 8.7854 2.047931564e-38
-9.7211 13.064 14.807 2.047931564e-38
-44.43 33.102 -9.9317 2.047931564e-38
-56.492 -8.3572 3.0446 2.047931564e-38
-34.392 -12.082 18.049 2.047931564e-38
-60.521 -2.1472 -3.0119 2.047931564e-38
-7.4845 -12.002 8.0353 2.047931564e-38
-20.971 -17.353 13.147 2.047931564e-38
-50.432 28.614 -14.329 2.047931564e-38
-50.344 -11.38 9.6807 1.065291755e-38
-7.1905 -11.5 8.1491 2.047931564e-38
-9.9889 14.827 14.392 2.047931564e-38
-61.299 10.11 -11.529 2.047931564e-38
-32.145 32.043 7.3036 2.047931564e-38
-11.7 -4.5326 16.288 2.047931564e-38
-36.329 -11.611 17.946 2.047931564e-38
-54.31 -10.125 5.5071 1.065291755e-38
-44.312 -11.852 14.395 2.047931564e-38
-61.495 0.71364 -6.0073 2.047931564e-38
-11.932 18.575 13.97 2.047931564e-38
-61.869 4.7061 -8.367 2.047931564e-38
-42.336 -11.623 15.681 2.047931564e-38
-27.978 -14.306 17.096 1.065291755e-38
-19.652 -18.128 11.9 2.047931564e-38
-9.2327 9.8786 15.441 2.047931564e-38
-61.86 3.5778 -7.9369 2.047931564e-38
-23.116 29.011 10.787 2.047931564e-38
-61.11 -0.8649 -4.5858 2.047931564e-38
-34.723 34.515 1.4846 2.047931564e-38
-8.9371 7.5859 15.617 2.047931564e-38
-14.699 -19.255 7.422 2.047931564e-38
-9.2366 3.9856 16.073 1.065291755e-38
-37.172 34.938 -1.4847 2.047931564e-38
-8.943 5.4927 15.824 1.065291755e-38
-33.411 33.973 3.4206 2.047931564e-38
-60.893 -1.4517 -3.7337 2.047931564e-38
-58.206 -6.7058 0.83551 2.047931564e-38
-35.435 -11.607 18.229 2.047931564e-38
-32.63 -12.608 18.111 1.065291755e-38
-61.856 2.8606 -7.5646 2.047931564e-38
-10.984 17.256 14.1 2.047931564e-38
-7.7106 -8.0965 11.418 2.047931564e-38
-13.911 -19.24 6.814 2.047931564e-38
-43.04 -11.594 15.426 2.047931564e-38
-7.2635 -8.944 10.418 2.047931564e-38
-23.345 -16.39 14.914 2.047931564e-38
-55.363 -9.3667 4.6258 1.065291755e-38
-49.797 29.414 -13.796 2.047931564e-38
-31.351 31.108 9.0548 2.047931564e-38
-56.727 21.006 -15.7 2.047931564e-38
-30.636 -13.135 18.002 1.065291755e-38
-7.7317 -13.363 7.2734 2.047931564e-38
-7.983 -7.7485 11.951 2.047931564e-38
-61.968 5.6702 -8.6641 2.047931564e-38
-55.922 22.234 -15.899 2.047931564e-38
-12.596 -18.938 6.0173 2.047931564e-38
-8.9993 -15.523 6.4632 2.047931564e-38
-60.02 -3.5294 -1.4748 2.047931564e-38
-37.757 35.095 -2.3553 2.047931564e-38
-46.44 32.134 -11.395 2.047931564e-38
-32.495 32.768 6.301 2.047931564e-38
-16.846 -19.135 9.4131 2.047931564e-38
-15.82 22.879 13.742 2.047931564e-38
-21.368 27.911 11.668 2.047931564e-38
-11.729 -3.2331 16.918 2.047931564e-38
-57.34 20.157 -15.447 2.047931564e-38
-36.798 -11.342 18.171 2.047931564e-38
-47.676 31.259 -12.446 2.047931564e-38
-7.7175 -13.037 7.6914 2.047931564e-38
-15.293 -19.258 8.1429 2.047931564e-38
-32.663 33.312 5.2895 2.047931564e-38
-33.613 -12.31 18.288 2.047931564e-38
-13.78 20.846 14.013 2.047931564e-38
-42.879 34.099 -8.4504 2.047931564e-38
-9.423 2.8032 16.347 1.065291755e-38
-7.4598 -12.602 7.8534 2.047931564e-38
-50.888 -11.352 9.4709 1.065291755e-38
-27.594 30.156 10.538 2.047931564e-38
-39.177 35.223 -4.8231 2.047931564e-38
-37.371 -11.374 18.061 2.047931564e-38
-18.743 -18.399 11.493 2.047931564e-38
-59.519 16.232 -14.213 2.047931564e-38
-26.024 -15.36 16.419 2.047931564e-38
-61.958 2.2203 -7.0822 2.047931564e-38
-10.111 -17.063 6.0561 2.047931564e-38
-13.202 -19.223 6.4497 2.047931564e-38
-24.085 29.512 10.798 2.047931564e-38
-17.607 -18.898 10.342 2.047931564e-38
-40.849 34.902 -6.5472 2.047931564e-38
-57.958 19.255 -15.382 2.047931564e-38
-9.4948 2.0742 16.444 1.065291755e-38
-52.508 26.897 -15.034 2.047931564e-38
-45.812 32.685 -10.686 2.047931564e-38
-48.689 -11.456 11.738 1.065291755e-38
-45.36 -11.977 13.996 2.047931564e-38
-27.049 -14.794 17.003 2.047931564e-38
-36.744 35.102 -0.79025 2.047931564e-38
-50.162 -11.346 10.42 1.065291755e-38
-61.997 7.7552 -9.2645 2.047931564e-38
-43.616 -11.886 15.196 2.047931564e-38
-32.198 31.635 8.522 2.047931564e-38
-45.243 33.088 -10.189 2.047931564e-38
-29.106 30.385 10.516 2.047931564e-38
-32.932 -12.336 18.553 2.047931564e-38
-9.3675 -16.147 6.5466 2.047931564e-38
-30.349 30.749 10.029 2.047931564e-38
-9.2351 3.513 16.43 1.065291755e-38
-47.004 -11.878 12.965 1.065291755e-38
-19.238 26.127 12.924 2.047931564e-38
-26.328 30.137 10.656 2.047931564e-38
-61.983 1.5501 -6.5063 2.047931564e-38
-53.225 -10.769 7.3116 1.065291755e-38
-40.308 -11.366 17.236 2.047931564e-38
-49.387 30.191 -13.294 2.047931564e-38
-9.7026 14.067 15.02 2.047931564e-38
-8.9978 -7.4015 13.498 2.047931564e-38
-53.99 -10.382 6.6194 1.065291755e-38
-12.432 19.408 14.376 2.047931564e-38
-10.641 -1.1632 17.005 2.047931564e-38
-10.826 -17.987 6.0122 2.047931564e-38
-7.2326 -9.8271 10.326 2.047931564e-38
-7.4461 -12.444 8.428 2.047931564e-38
-8.9805 4.7861 16.361 1.065291755e-38
-55.306 23.697 -15.72 2.047931564e-38
-11.2 -2.3521 17.14 2.047931564e-38
-24.237 -16.148 15.773 2.047931564e-38
-59.142 -5.7873 0.34278 2.047931564e-38
-15.709 -19.254 8.9791 2.047931564e-38
-9.0081 10.7 15.622 2.047931564e-38
-11.324 17.923 14.516 2.047931564e-38
-7.2016 -11.122 9.3649 2.047931564e-38
-61.889 9.733 -10.953 2.047931564e-38
-44.284 -11.877 15.045 2.047931564e-38
-52.028 27.827 -14.436 2.047931564e-38
-11.767 -6.1124 16.36 2.047931564e-38
-20.385 27.159 12.588 2.047931564e-38
-7.4511 -8.5787 11.486 2.047931564e-38
-9.6644 -16.687 6.5315 2.047931564e-38
-7.7054 -8.3801 11.891 2.047931564e-38
-10.28 16.086 14.738 2.047931564e-38
-8.1197 -7.8166 12.63 2.047931564e-38
-7.1942 -10.669 9.7859 2.047931564e-38
-15.042 22.397 14.152 2.047931564e-38
-55.129 -9.8607 5.5233 1.065291755e-38
-36.634 35.168 -0.050391 2.047931564e-38
-44.061 33.955 -9.219 2.047931564e-38
-7.4639 -9.0528 11.276 2.047931564e-38
-44.868 -12.13 14.588 2.047931564e-38
-8.0017 -14.295 7.4447 2.047931564e-38
-31.704 31.116 9.7586 2.047931564e-38
-34.736 -11.876 18.794 2.047931564e-38
-25.154 29.887 11.075 2.047931564e-38
-42.894 -11.594 16.123 2.047931564e-38
-9.0363 -15.861 6.9614 2.047931564e-38
-49.804 -11.542 11.111 1.065291755e-38
-7.2151 -11.686 9.113 2.047931564e-38
-10.341 -17.635 6.2863 2.047931564e-38
-10.632 -7.1346 15.246 2.047931564e-38
-60.69 14.358 -13.491 2.047931564e-38
-7.4996 -13.002 8.294 2.047931564e-38
-54.734 24.821 -15.451 2.047931564e-38
-11.584 -18.697 6.2825 2.047931564e-38
-8.6157 -15.162 7.3876 2.047931564e-38
-13.234 -19.224 7.2606 2.047931564e-38
-29.792 -13.296 18.541 1.065291755e-38
-14.367 -19.252 8.2645 2.047931564e-38
-32.99 32.772 7.1907 2.047931564e-38
-31.474 -12.813 18.782 1.065291755e-38
-57.673 -7.8578 2.7381 2.047931564e-38
-9.2384 12.356 15.606 2.047931564e-38
-61.837 10.807 -11.745 2.047931564e-38
-53.579 26.421 -14.785 2.047931564e-38
-50.801 29.341 -13.695 2.047931564e-38
-34.43 34.745 2.8387 2.047931564e-38
-37.192 -11.343 18.672 2.047931564e-38
-17.565 24.675 13.95 2.047931564e-38
-51.618 28.627 -13.815 2.047931564e-38
-54.769 -10.131 6.2354 1.065291755e-38
-61.928 -0.25262 -4.8575 2.047931564e-38
-61.408 12.429 -12.856 2.047931564e-38
-62.501 6.5211 -8.5221 2.047931564e-38
-9.4804 -16.427 7.0838 2.047931564e-38
-12.272 -4.7995 17.457 2.047931564e-38
-19.591 -18.105 12.929 2.047931564e-38
-8.7145 6.3884 16.434 1.065291755e-38
-27.528 -14.144 18.034 1.065291755e-38
-9.7611 -7.5426 14.544 2.047931564e-38
-33.36 -12.32 18.974 2.047931564e-38
-7.7063 -13.538 8.2429 2.047931564e-38
-10.167 0.079948 17.288 2.047931564e-38
-38.824 35.631 -3.3591 2.047931564e-38
-37.209 35.393 -0.52737 2.047931564e-38
-62.495 2.8175 -7.0715 2.047931564e-38
-61.674 11.711 -12.31 2.047931564e-38
-9.6802 1.1198 17.087 1.065291755e-38
-10.711 17.089 14.895 2.047931564e-38
-46.408 -12.119 13.823 1.065291755e-38
-9.9399 -17.254 6.6429 2.047931564e-38
-8.6993 8.9015 16.152 2.047931564e-38
-18.53 25.609 13.675 2.047931564e-38
-40.349 35.53 -5.7248 2.047931564e-38
-42.506 -11.371 16.704 2.047931564e-38
-32.557 -12.583 18.952 1.065291755e-38
-56.921 -8.4492 4.072 1.065291755e-38
-35.811 -11.622 18.972 2.047931564e-38
-47.893 31.915 -11.792 2.047931564e-38
-7.4794 -12.752 8.8129 2.047931564e-38
-36.607 -11.381 18.922 2.047931564e-38
-38.988 -11.369 18.219 2.047931564e-38
-33.825 34.552 3.7945 2.047931564e-38
-62.321 9.129 -9.8441 2.047931564e-38
-16.761 24.037 14.221 2.047931564e-38
-26.518 30.136 11.395 2.047931564e-38
-9.2495 -16.008 7.506 2.047931564e-38
-7.1817 -9.4814 11.12 2.047931564e-38
-9.69 -16.976 6.8366 2.047931564e-38
-33.478 34.321 4.4816 2.047931564e-38
-29.969 30.644 10.998 2.047931564e-38
-61.195 -2.4291 -2.2314 2.047931564e-38
-11.762 18.79 14.856 2.047931564e-38
-62.682 4.2588 -7.9291 2.047931564e-38
-7.4636 -9.0021 11.784 2.047931564e-38
-56.342 -9.0407 4.8224 1.065291755e-38
-9.9 -16.941 7.1999 2.047931564e-38
-12.821 -6.0065 17.536 2.047931564e-38
-43.535 -11.866 15.973 2.047931564e-38
-23.411 29.376 11.741 2.047931564e-38
-7.3581 -12.392 9.1292 2.047931564e-38
-48.154 -11.853 12.802 1.065291755e-38
-60.457 15.719 -13.703 2.047931564e-38
-52.991 27.44 -14.275 2.047931564e-38
-25.754 30.131 11.383 2.047931564e-38
-13.043 20.343 14.814 2.047931564e-38
-61.317 13.354 -13 2.047931564e-38
-59.42 18.016 -14.436 2.047931564e-38
-7.2292 -11.673 9.6428 2.047931564e-38
-9.2249 2.9016 17.069 1.065291755e-38
-33.196 33.479 6.3798 2.047931564e-38
-8.9489 3.7254 16.904 1.065291755e-38
-59.951 -4.9798 0.17187 2.047931564e-38
-12.371 -19.164 7.0409 2.047931564e-38
-56.363 23.209 -15.223 2.047931564e-38
-28.35 30.396 11.42 2.047931564e-38
-57.304 21.788 -15.234 2.047931564e-38
-22.243 28.827 12.12 2.047931564e-38
-25.033 -15.59 16.963 2.047931564e-38
-22.334 -16.873 15.335 2.047931564e-38
-50.863 -11.633 10.501 1.065291755e-38
-46.622 32.973 -10.725 2.047931564e-38
-51.845 -11.621 9.4237 1.065291755e-38
-62.617 2.1592 -6.5959 2.047931564e-38
-52.586 -11.415 8.693 1.065291755e-38
-50.398 30.111 -13.154 2.047931564e-38
-21.299 -17.155 14.807 2.047931564e-38
-23.157 -16.354 16.027 2.047931564e-38
-33.223 32.532 8.1522 2.047931564e-38
-7.2143 -12.13 9.3943 2.047931564e-38
-36.976 35.581 -0.080953 2.047931564e-38
-46.028 33.408 -10.28 2.047931564e-38
-15.895 23.202 14.688 2.047931564e-38
-33.368 34.015 5.5518 2.047931564e-38
-20.435 -17.62 14.159 2.047931564e-38
-14.299 21.634 14.963 2.047931564e-38
-7.5518 -8.76 12.314 2.047931564e-38
-61.87 -1.3722 -3.5262 2.047931564e-38
-32.921 31.663 9.6494 2.047931564e-38
-58.673 -7.1595 2.0741 2.047931564e-38
-36.246 35.402 1.1856 2.047931564e-38
-8.9611 11.371 16.177 2.047931564e-38
-11.742 -19.037 6.8406 2.047931564e-38
-41.541 -11.366 17.525 2.047931564e-38
-54.598 25.804 -14.925 2.047931564e-38
-10.954 -18.5 6.7469 2.047931564e-38
-9.6544 -16.565 7.7972 2.047931564e-38
-58.769 19.684 -14.784 2.047931564e-38
-7.4471 -12.736 9.3056 2.047931564e-38
-60.309 16.737 -13.707 2.047931564e-38
-7.2386 -9.441 11.652 2.047931564e-38
-43.752 34.701 -8.4699 2.047931564e-38
-12.063 -7.1407 16.892 2.047931564e-38
-62.655 1.3669 -5.9627 2.047931564e-38
-53.348 -11.32 8.0865 1.065291755e-38
-62.919 3.428 -7.3758 2.047931564e-38
-18.657 -18.615 12.586 2.047931564e-38
-49.848 30.85 -12.66 2.047931564e-38
-21.466 28.231 12.831 2.047931564e-38
-41.964 35.425 -6.7123 2.047931564e-38
-12.118 -3.5805 18.264 2.047931564e-38
-16.124 -19.271 10.455 2.047931564e-38
-35.13 -11.62 19.561 2.047931564e-38
-7.1882 -9.9538 11.374 2.047931564e-38
-7.1978 -11.599 10.156 2.047931564e-38
-11.196 -7.5795 16.196 2.047931564e-38
-44.65 -12.144 15.558 2.047931564e-38
-37.822 -11.385 19.037 2.047931564e-38
-8.3176 -14.779 8.4907 2.047931564e-38
-11.089 -1.8782 18.072 2.047931564e-38
-10.498 -17.988 7.1729 2.047931564e-38
-60.62 -4.1331 -0.24259 2.047931564e-38
-36.953 35.624 0.45434 2.047931564e-38
-52.644 28.363 -13.548 2.047931564e-38
-28.442 -13.564 19 1.065291755e-38
-12.872 -19.222 7.987 2.047931564e-38
-56.101 24.069 -15.13 2.047931564e-38
-27.428 30.13 12.104 2.047931564e-38
-20.737 27.797 13.099 2.047931564e-38
-58.22 20.924 -14.819 2.047931564e-38
-32.047 -12.402 19.601 1.065291755e-38
-25.668 -15.069 17.773 2.047931564e-38
-41.255 35.693 -5.9748 2.047931564e-38
-7.2354 -12.172 9.7913 2.047931564e-38
-45.266 -12.097 15.263 2.047931564e-38
-30.929 30.884 11.254 2.047931564e-38
-9.527 14.86 15.647 2.047931564e-38
-49.184 31.509 -12.243 2.047931564e-38
-11.453 -18.703 7.3478 2.047931564e-38
-7.4682 -9.3268 12.178 2.047931564e-38
-30.683 -12.781 19.518 1.065291755e-38
-9.2258 13.595 15.919 2.047931564e-38
-29.442 30.469 11.855 2.047931564e-38
-19.647 26.676 13.854 2.047931564e-38
-7.2007 -12.51 9.5183 2.047931564e-38
-55.675 24.811 -14.838 2.047931564e-38
-25.241 30.141 11.883 2.047931564e-38
-26.081 30.147 12.021 2.047931564e-38
-24.436 29.892 12.011 2.047931564e-38
-44.314 -11.844 16.074 2.047931564e-38
-23.916 -15.879 16.963 2.047931564e-38
-9.1165 -15.658 8.6219 2.047931564e-38
-13.012 -4.8346 18.56 2.047931564e-38
-10.477 -0.84526 17.986 2.047931564e-38
-11.662 -2.6712 18.371 2.047931564e-38
-57.827 -8.1283 3.7164 1.065291755e-38
-10.196 -17.098 8.1553 2.047931564e-38
-54.809 -10.612 6.926 1.065291755e-38
-62.922 8.2648 -9.0027 2.047931564e-38
-56.127 -9.5847 5.6942 1.065291755e-38
-44.423 34.606 -8.9075 2.047931564e-38
-7.5663 -13.357 9.2636 2.047931564e-38
-15.029 -19.241 9.9666 2.047931564e-38
-63.114 4.0508 -7.4753 2.047931564e-38
-33.694 32.244 9.1112 2.047931564e-38
-35.591 35.389 2.3806 2.047931564e-38
-43.522 -11.617 16.719 2.047931564e-38
-13.221 -6.9764 17.947 2.047931564e-38
-7.47 -12.803 9.6957 2.047931564e-38
-8.7051 5.2033 17.24 1.065291755e-38
-63.16 5.1664 -7.9535 2.047931564e-38
-11.075 17.939 15.502 2.047931564e-38
-38.11 35.922 -1.0163 2.047931564e-38
-35.965 -11.336 19.739 2.047931564e-38
-7.8402 -8.7837 13.046 2.047931564e-38
-43.876 -11.889 16.401 2.047931564e-38
-50.145 -11.77 11.802 1.065291755e-38
-37.475 35.839 -0.037542 2.047931564e-38
-12.204 19.514 15.441 2.047931564e-38
-45.073 34.365 -9.3674 2.047931564e-38
-33.72 33.481 7.2329 2.047931564e-38
-17.302 -19.137 11.69 2.047931564e-38
-34.396 34.909 4.2331 2.047931564e-38
-7.9416 -13.959 9.2749 2.047931564e-38
-39.903 36.11 -4.1067 2.047931564e-38
-8.4818 7.6973 16.97 2.047931564e-38
-55.599 -10.092 6.3756 1.065291755e-38
-53.981 27.229 -13.995 2.047931564e-38
-47.444 32.997 -10.979 2.047931564e-38
-10.956 -17.662 8.5138 2.047931564e-38
-32.986 -12.112 19.912 2.047931564e-38
-52.535 28.89 -12.852 2.047931564e-38
-59.541 19.092 -14.283 2.047931564e-38
-26.14 -14.391 18.607 2.047931564e-38
-7.2441 -12.554 9.9153 2.047931564e-38
-13.523 21.065 15.476 2.047931564e-38
-50.897 -11.623 11.377 1.065291755e-38
-32.229 31.25 11.081 2.047931564e-38
-21.97 28.8 12.931 2.047931564e-38
-10.105 -16.623 9.0451 2.047931564e-38
-63.311 5.917 -8.1411 2.047931564e-38
-47.528 -12.363 13.885 1.065291755e-38
-49.312 -11.908 12.728 1.065291755e-38
-11.749 -18.509 8.4545 2.047931564e-38
-38.852 36.121 -1.8783 2.047931564e-38
-61.316 15.441 -13.211 2.047931564e-38
-8.7018 4.3444 17.509 1.065291755e-38
-63.266 2.9916 -6.9306 2.047931564e-38
-61.654 14.462 -13.115 2.047931564e-38
-13.146 -19.137 8.9813 2.047931564e-38
-50.806 30.633 -12.373 2.047931564e-38
-35.089 35.386 3.2569 2.047931564e-38
-40.8 36.112 -5.1175 2.047931564e-38
-9.9847 15.985 15.95 2.047931564e-38
-62.567 -0.76998 -3.9213 2.047931564e-38
-9.2378 2.5909 17.897 1.065291755e-38
-59.797 -6.2888 1.512 2.047931564e-38
-59.368 19.723 -14.467 2.047931564e-38
-17.748 25.08 14.915 2.047931564e-38
-11.638 -17.877 9.251 2.047931564e-38
-52.054 29.595 -12.633 2.047931564e-38
-62.961 10.13 -9.9207 2.047931564e-38
-13.707 -6.41 18.792 2.047931564e-38
-61.521 -3.1144 -0.91676 2.047931564e-38
-38.855 -11.348 19.248 2.047931564e-38
-62.379 12.521 -12.199 2.047931564e-38
-33.949 -11.73 20.227 2.047931564e-38
-46.039 -12.365 15.12 1.065291755e-38
-11.645 18.688 15.889 2.047931564e-38
-42.651 -11.339 17.737 2.047931564e-38
-43.092 35.524 -7.2234 2.047931564e-38
-12.649 -7.8888 17.615 2.047931564e-38
-53.659 28.042 -13.361 2.047931564e-38
-26.948 -13.858 19.274 2.047931564e-38
-29.415 -12.604 20.13 1.065291755e-38
-12.444 -18.493 9.3851 2.047931564e-38
-62.156 13.401 -12.575 2.047931564e-38
-22.15 -16.588 16.482 2.047931564e-38
-9.7279 1.1853 18.25 2.047931564e-38
-33.171 31.633 10.705 2.047931564e-38
-10.918 -17.197 9.5058 2.047931564e-38
-8.4621 10.16 16.879 2.047931564e-38
-11.459 -17.472 9.7195 2.047931564e-38
-63.352 2.488 -6.432 2.047931564e-38
-34.144 34.781 5.3136 2.047931564e-38
-13.855 -19.242 9.7284 2.047931564e-38
-63.401 7.3716 -8.4692 2.047931564e-38
-33.937 34.233 6.4641 2.047931564e-38
-9.1692 -8.6363 14.807 2.047931564e-38
-24.886 30.142 12.493 2.047931564e-38
-11.803 -8.1847 17.009 2.047931564e-38
-37.068 -11.4 19.854 2.047931564e-38
-24.337 -15.365 17.972 2.047931564e-38
-21.534 28.357 13.565 2.047931564e-38
-22.887 -16.126 17.102 2.047931564e-38
-63.027 0.33434 -4.8865 2.047931564e-38
-7.1907 -12.423 10.422 2.047931564e-38
-56.634 24.433 -14.497 2.047931564e-38
-40.25 -11.383 18.881 2.047931564e-38
-63.512 3.6308 -7.131 2.047931564e-38
-10.476 17.254 15.959 2.047931564e-38
-23.593 29.632 12.869 2.047931564e-38
-46.802 -12.338 14.796 1.065291755e-38
-57.824 -8.3393 4.7193 1.065291755e-38
-8.9293 12.573 16.715 2.047931564e-38
-62.4 -1.6786 -2.7324 2.047931564e-38
-59.293 20.356 -14.233 2.047931564e-38
-44.001 -11.81 16.945 2.047931564e-38
-34.863 35.4 3.9539 2.047931564e-38
-58.716 -7.6583 3.5189 1.065291755e-38
-15.169 22.659 15.76 2.047931564e-38
-61.22 16.416 -13.43 2.047931564e-38
-20.178 -17.586 15.172 2.047931564e-38
-50.238 31.454 -11.871 2.047931564e-38
-7.2013 -10.968 11.674 2.047931564e-38
-57.314 23.587 -14.479 2.047931564e-38
-63.308 9.2518 -9.2481 2.047931564e-38
-13.454 -7.6651 18.383 2.047931564e-38
-44.007 35.33 -7.9331 2.047931564e-38
-25.522 30.128 12.795 2.047931564e-38
-62.976 11.125 -10.575 2.047931564e-38
-34.439 32.965 8.7235 2.047931564e-38
-55.504 26.133 -13.895 2.047931564e-38
-7.4835 -13.052 10.348 2.047931564e-38
-7.5482 -13.606 9.9277 2.047931564e-38
-13.934 -7.1795 18.885 2.047931564e-38
-8.2846 -9.0637 14 2.047931564e-38
-9.3822 -15.892 9.6774 2.047931564e-38
-11.977 -17.973 9.9062 2.047931564e-38
-7.5247 -9.5843 12.999 2.047931564e-38
-37.627 36.11 0.60527 2.047931564e-38
-30.972 -12.32 20.469 1.065291755e-38
-38.101 36.147 0.11569 2.047931564e-38
-53.509 -11.612 8.9856 1.065291755e-38
-20.981 28.032 13.922 2.047931564e-38
-20.824 -17.153 15.871 2.047931564e-38
-12.74 20.303 15.974 2.047931564e-38
-19.418 -18.034 14.579 2.047931564e-38
-28.941 30.389 12.931 2.047931564e-38
-10.445 -16.735 9.9252 2.047931564e-38
-34.053 32.13 10.193 2.047931564e-38
-8.4833 6.39 17.708 1.065291755e-38
-11.09 -17.13 10.127 2.047931564e-38
-52.282 -11.841 10.365 2.047931564e-38
-57.257 -8.9343 5.6054 1.065291755e-38
-46.88 33.953 -9.9876 2.047931564e-38
-10.035 -8.7665 15.728 2.047931564e-38
-22.498 29.068 13.419 2.047931564e-38
-53.385 28.801 -12.641 2.047931564e-38
-10.98 -2.0642 18.863 2.047931564e-38
-35.067 -11.348 20.587 2.047931564e-38
-44.882 35.063 -8.4263 2.047931564e-38
-45.112 -12.124 16.302 2.047931564e-38
-48.745 32.78 -10.943 2.047931564e-38
-34.396 33.61 7.9598 2.047931564e-38
-60.979 17.441 -13.465 2.047931564e-38
-60.77 -5.154 0.9681 2.047931564e-38
-7.2337 -10.285 12.428 2.047931564e-38
-20.276 27.364 14.46 2.047931564e-38
-54.266 -11.383 8.3565 1.065291755e-38
-10.719 -1.2882 18.899 2.047931564e-38
-63.762 4.1716 -7.4451 2.047931564e-38
-39.007 36.368 -1.1451 2.047931564e-38
-8.6165 -15.118 9.9117 2.047931564e-38
-58.343 22.339 -14.498 2.047931564e-38
-36.71 35.913 2.2576 2.047931564e-38
-51.762 30.427 -12.16 2.047931564e-38
-8.8922 3.8181 18.213 1.065291755e-38
-44.556 -11.86 16.855 2.047931564e-38
-16.273 23.864 15.729 2.047931564e-38
-25.002 -14.817 18.82 2.047931564e-38
-18.466 -18.513 13.89 2.047931564e-38
-27.721 -13.127 20.181 1.065291755e-38
-37.393 36.135 1.2461 2.047931564e-38
-36.018 35.833 2.952 2.047931564e-38
-54.902 27.268 -13.206 2.047931564e-38
-32.844 31.357 11.707 2.047931564e-38
-47.533 -12.342 14.634 1.065291755e-38
-48.679 -12.38 13.704 1.065291755e-38
-17.742 -19.088 13.021 2.047931564e-38
-12.684 -3.9421 19.567 2.047931564e-38
-30.032 30.651 12.883 2.047931564e-38
-10.23 -0.32534 18.856 2.047931564e-38
-25.577 -13.947 19.538 2.047931564e-38
-22.035 28.878 13.691 2.047931564e-38
-34.791 35.361 4.7277 2.047931564e-38
-63.516 1.2534 -5.271 2.047931564e-38
-42.377 36.153 -5.7949 2.047931564e-38
-18.794 26.224 15.078 2.047931564e-38
-32.998 -11.732 20.871 2.047931564e-38
-31.097 30.873 12.605 2.047931564e-38
-31.858 -11.858 20.921 1.065291755e-38
-63.001 12.168 -11.209 2.047931564e-38
-26.296 30.111 13.353 2.047931564e-38
-40.014 36.569 -2.8405 2.047931564e-38
-11.499 -17.578 10.354 2.047931564e-38
-13.007 -18.819 10.25 2.047931564e-38
-9.4409 15.212 16.59 2.047931564e-38
-17.067 24.636 15.669 2.047931564e-38
-14.044 21.592 16.276 2.047931564e-38
-8.4537 8.9559 17.667 2.047931564e-38
-60.73 18.39 -13.663 2.047931564e-38
-38.197 -11.344 20.05 2.047931564e-38
-12.134 19.398 16.473 2.047931564e-38
-15.932 -19.228 11.976 2.047931564e-38
-34.703 32.701 9.6655 2.047931564e-38
-63.948 5.5121 -7.9106 2.047931564e-38
-37.895 36.161 1.2306 2.047931564e-38
-24.622 30.115 13.154 2.047931564e-38
-23.179 -15.705 18.038 2.047931564e-38
-32.168 31.173 12.246 2.047931564e-38
-14.165 -6.0973 19.814 2.047931564e-38
-63.931 6.3717 -7.9645 2.047931564e-38
-28.278 -12.417 20.808 1.065291755e-38
-11.455 -2.5096 19.359 2.047931564e-38
-13.721 -5.2632 19.892 2.047931564e-38
-35.536 35.632 4.1283 2.047931564e-38
-10.027 -16.349 10.462 2.047931564e-38
-59.239 21.36 -14.091 2.047931564e-38
-36.407 -11.124 20.718 2.047931564e-38
-7.4631 -12.952 11.051 2.047931564e-38
-7.2113 -12.029 11.533 2.047931564e-38
-59.818 -6.8717 2.7314 2.047931564e-38
-42.136 -11.384 18.642 2.047931564e-38
-56.659 25.325 -13.877 2.047931564e-38
-52.774 29.851 -11.941 2.047931564e-38
-7.8914 -9.8664 13.726 2.047931564e-38
-41.782 36.451 -4.9849 2.047931564e-38
-46.117 34.751 -8.9943 2.047931564e-38
-11.104 -8.9878 16.819 2.047931564e-38
-54.457 28.169 -12.525 2.047931564e-38
-62.506 14.274 -12.55 2.047931564e-38
-63.939 2.9801 -6.5464 2.047931564e-38
-43.864 -11.625 17.707 2.047931564e-38
-21.852 28.627 14.169 2.047931564e-38
-12.245 -18.228 10.552 2.047931564e-38
-26.386 -13.317 20.244 2.047931564e-38
-49.947 32.292 -11.19 2.047931564e-38
-9.7216 0.47663 18.882 2.047931564e-38
-56.688 -9.9638 6.4968 1.065291755e-38
-13.74 -19.231 10.654 2.047931564e-38
-13.879 -7.9681 19.051 2.047931564e-38
-14.216 -7.0252 19.626 2.047931564e-38
